 2.1531272725e+02  5.8820069408e-01  0.0000000000e+00 
 4.1610254817e+02  0.0000000000e+00  6.2496093994e-01 
 2.4445401139e+00  7.6917160218e-01  0.0000000000e+00 
 4.4880559591e+02  0.0000000000e+00  8.3326389468e-01 
 3.9885020395e+01  4.9997500125e-01  0.0000000000e+00 
 2.8586472486e+02  0.0000000000e+00  5.2628809010e-01 
 2.1770700281e+02  6.6662222518e-01  0.0000000000e+00 
 3.8448600608e+02  0.0000000000e+00  7.1423469752e-01 
 2.5499021048e+02  9.0900827198e-01  0.0000000000e+00 
 3.7690482469e+02  0.0000000000e+00  9.0900827198e-01 
 3.5500558900e+00  9.9990001000e-01  0.0000000000e+00 
 4.0363787561e+02  0.0000000000e+00  1.1109876680e+00 
 5.8930051922e+00  9.9990001000e-01  0.0000000000e+00 
 4.0091463995e+02  0.0000000000e+00  1.1109876680e+00 
 2.6030102784e+02  6.6662222518e-01  0.0000000000e+00 
 2.3425565013e+02  0.0000000000e+00  7.1423469752e-01 
 3.1182772887e+01  7.1423469752e-01  0.0000000000e+00 
 2.3639539778e+02  0.0000000000e+00  8.3326389468e-01 
 1.1211783992e+02  8.3326389468e-01  0.0000000000e+00 
 1.5461361732e+02  0.0000000000e+00  8.3326389468e-01 
 2.3736884267e+01  6.6662222518e-01  0.0000000000e+00 
 1.3083061924e+02  0.0000000000e+00  7.1423469752e-01 
 2.5029579592e+02  7.1423469752e-01  0.0000000000e+00 
 1.3432200839e+02  0.0000000000e+00  7.1423469752e-01 
 2.1275609785e+02  8.3326389468e-01  0.0000000000e+00 
 1.3207494709e+02  0.0000000000e+00  8.3326389468e-01 
 3.0233351739e+02  7.1423469752e-01  0.0000000000e+00 
 8.6182960694e+01  0.0000000000e+00  8.3326389468e-01 
 2.4296781926e+02  6.6662222518e-01  0.0000000000e+00 
 5.9937353213e+01  0.0000000000e+00  7.1423469752e-01 
 1.9074200904e+02  8.3326389468e-01  0.0000000000e+00 
 5.1050185381e+01  0.0000000000e+00  9.0900827198e-01 
 3.6661520428e+00  4.7616780153e-01  0.0000000000e+00 
 1.7905254531e+01  0.0000000000e+00  4.9997500125e-01 
 8.8014468386e+01  8.3326389468e-01  0.0000000000e+00 
 1.3346186108e+01  0.0000000000e+00  9.0900827198e-01 
 1.2528947647e+02  6.6662222518e-01  0.0000000000e+00 
-1.2468996452e+00  0.0000000000e+00  7.1423469752e-01 
 1.5739596258e+02  4.9997500125e-01  0.0000000000e+00 
-3.1048200489e+00  0.0000000000e+00  4.9997500125e-01 
 2.2143657259e+02  8.3326389468e-01  0.0000000000e+00 
-3.0854554151e+01  0.0000000000e+00  8.3326389468e-01 
 1.3891799232e+02  7.1423469752e-01  0.0000000000e+00 
-3.1199075242e+01  0.0000000000e+00  7.1423469752e-01 
